# .PCD v0.7 - Point Cloud Data file format
VERSION 0.7
FIELDS x y z
SIZE 4 4 4
TYPE F F F
COUNT 1 1 1
WIDTH 1602
HEIGHT 1
VIEWPOINT 0 0 0 1 0 0 0
POINTS 1602
DATA ascii
-0.34973305 0.20424278 1.439
-0.34974781 0.20032696 1.439
-0.34976235 0.1964107 1.439
-0.34929064 0.19222651 1.437
-0.3493048 0.18831484 1.437
-0.34931877 0.18440273 1.437
-0.34957564 0.18061583 1.438
-0.34910297 0.17645444 1.436
-0.34863004 0.17230351 1.434
-0.34815693 0.16816309 1.432
-0.34792659 0.16414785 1.431
-0.34745294 0.16002569 1.429
-0.34697899 0.15591405 1.427
-0.34674791 0.15191944 1.426
-0.34700292 0.14813754 1.427
-0.34677136 0.14414763 1.426
-0.34605309 0.13996609 1.423
-0.34533459 0.13580057 1.42
-0.34461576 0.13165106 1.4170001
-0.34413981 0.12760773 1.415
-0.34415004 0.12374989 1.415
-0.34415996 0.11989173 1.415
-0.34416959 0.11603325 1.415
-0.34466547 0.11233301 1.4170001
-0.34613401 0.10892776 1.423
-0.34735906 0.10541565 1.428
-0.34809747 0.10173383 1.431
-0.34834903 0.09789861 1.432
-0.34811378 0.0939264 1.431
-0.34787822 0.089959376 1.4299999
-0.34837216 0.086178124 1.432
-0.34983897 0.082615517 1.438
-0.3527652 0.079348266 1.45
-0.35666442 0.076223284 1.466
-0.35983357 0.07286296 1.479
-0.3627592 0.06938494 1.4910001
-0.36568457 0.065841228 1.503
-0.36958292 0.062396128 1.5190001
-0.37396765 0.058940195 1.5369999
-0.38054201 0.0557064 1.564
-0.38349253 0.0088045057 1.576
-0.37911314 0.0044500264 1.558
-0.37570667 0.00019433077 1.544
-0.37375987 -0.0040005418 1.536
-0.37351599 -0.0081890607 1.535
-0.37546179 -0.012444683 1.543
-0.37692046 -0.016722362 1.549
-0.37643221 -0.020924551 1.5470001
-0.3749702 -0.02505073 1.541
-0.37375122 -0.029163063 1.536
-0.37326187 -0.033313159 1.534
-0.37228552 -0.037403338 1.53
-0.37057886 -0.041390046 1.523
-0.36984515 -0.045458037 1.52
-0.36935446 -0.049542159 1.518
-0.36910668 -0.053650588 1.517
-0.36910188 -0.057791483 1.517
-0.36934009 -0.061973054 1.518
-0.36957791 -0.066159897 1.5190001
-0.36957213 -0.070305742 1.5190001
-0.37029582 -0.074598409 1.522
-0.3705326 -0.07880377 1.523
-0.37028247 -0.082905412 1.522
-0.37027526 -0.087058567 1.522
-0.37051103 -0.091271408 1.523
-0.37098977 -0.095552117 1.525
-0.37073833 -0.099647321 1.524
-0.37145954 -0.10400923 1.527
-0.37242377 -0.10845809 1.531
-0.37290108 -0.11278132 1.533
-0.37289158 -0.11696257 1.533
-0.37361148 -0.12138058 1.536
-0.37408778 -0.12573287 1.538
-0.37505022 -0.13026468 1.5420001
-0.37601227 -0.13481797 1.546
-0.3772172 -0.13948266 1.551
-0.37793538 -0.14398894 1.554
-0.37792361 -0.14822504 1.554
-0.37888432 -0.15285321 1.558
-0.37984464 -0.15750277 1.562
-0.38104784 -0.16227733 1.567
-0.38225064 -0.1670787 1.572
-0.38393942 -0.17212494 1.579
-0.3763338 0.34185028 1.568
-0.36291131 0.32553929 1.512
-0.35332805 0.31293333 1.472
-0.3490248 0.3051613 1.454
-0.34712169 0.29955819 1.446
-0.34569857 0.29440707 1.4400001
-0.34475538 0.28969151 1.436
-0.3440522 0.2851963 1.433
-0.34358901 0.28091326 1.431
-0.34336585 0.27683428 1.4299999
-0.34386304 0.27333292 1.432
-0.3443602 0.2698203 1.434
-0.34485736 0.26629636 1.436
-0.34487411 0.26239565 1.436
-0.34537119 0.25885451 1.438
-0.34538788 0.25494754 1.438
-0.34588486 0.25138927 1.4400001
-0.34542087 0.24713218 1.438
-0.34543726 0.24322385 1.438
-0.34497303 0.23898222 1.436
-0.34498918 0.23507842 1.436
-0.34476489 0.23101318 1.4349999
-0.34526125 0.22742771 1.437
-0.34551725 0.22367539 1.438
-0.34601346 0.22007002 1.4400001
-0.34554827 0.21585284 1.438
-0.34556356 0.21194091 1.438
-0.34533837 0.20788386 1.437
-0.34535331 0.20397376 1.437
-0.34536806 0.20006318 1.437
-0.34562293 0.19628869 1.438
-0.34563732 0.19237454 1.438
-0.34565154 0.18845998 1.438
-0.34542513 0.18441661 1.437
-0.34519854 0.1803783 1.436
-0.34449089 0.17609921 1.433
-0.34426379 0.1720764 1.432
-0.34379601 0.16794115 1.4299999
-0.34356841 0.16393113 1.429
-0.34310013 0.15981418 1.427
-0.34287205 0.15581699 1.426
-0.34240323 0.15171832 1.424
-0.34265551 0.1479416 1.425
-0.3426671 0.144058 1.425
-0.34243798 0.14007567 1.424
-0.3412466 0.13571583 1.419
-0.34053591 0.13156876 1.416
-0.3405464 0.12770826 1.416
-0.3407971 0.12393487 1.4170001
-0.34080708 0.12007099 1.4170001
-0.34105724 0.1162888 1.418
-0.3417882 0.11265939 1.421
-0.34251893 0.10901331 1.424
-0.34348994 0.1054244 1.428
-0.34373909 0.1016001 1.429
-0.34398788 0.097770035 1.4299999
-0.34399593 0.093868621 1.4299999
-0.34424418 0.090029836 1.431
-0.34497333 0.086305752 1.434
-0.34714553 0.082909763 1.443
-0.35052046 0.079738066 1.457
-0.35437638 0.076593734 1.473
-0.35702911 0.073115498 1.484
-0.35968167 0.069577008 1.495
-0.36161217 0.065846846 1.503
-0.36378297 0.062113896 1.512
-0.36643475 0.058408335 1.523
-0.37173283 0.055034377 1.545
-0.38015863 0.051967725 1.58
-0.38187 0.00019976016 1.587
-0.38066673 -0.004120707 1.582
-0.38114744 -0.0084512038 1.584
-0.3806603 -0.02571946 1.582
-0.37873292 -0.029887127 1.574
-0.37656462 -0.033989307 1.5650001
-0.37391475 -0.037993342 1.554
-0.37174577 -0.041991554 1.545
-0.3700577 -0.04600032 1.538
-0.36909112 -0.050068647 1.534
-0.36812422 -0.054114986 1.53
-0.36763823 -0.058215532 1.528
-0.36739242 -0.06234581 1.527
-0.36786816 -0.066601135 1.529
-0.36810285 -0.070820898 1.53
-0.36857784 -0.075094931 1.5319999
-0.36809012 -0.079172678 1.53
-0.36784264 -0.083293758 1.529
-0.36735427 -0.087351941 1.527
-0.36734676 -0.091518827 1.527
-0.36757943 -0.095748112 1.528
-0.36757123 -0.099917218 1.528
-0.36804384 -0.10422228 1.53
-0.36851606 -0.10853795 1.5319999
-0.36898798 -0.11286424 1.534
-0.36945951 -0.11720113 1.536
-0.36993074 -0.12154862 1.538
-0.37040159 -0.12590669 1.54
-0.37087217 -0.13027532 1.5420001
-0.37182337 -0.13482894 1.546
-0.37277424 -0.13940403 1.55
-0.37372479 -0.14400055 1.554
-0.37395352 -0.14833234 1.5549999
-0.37466291 -0.15286541 1.558
-0.37537196 -0.15741448 1.561
-0.37608066 -0.16197947 1.564
-0.37702948 -0.1666667 1.568
-0.37821844 -0.17148431 1.573
-0.37964746 -0.17644052 1.579
-0.38131657 -0.18154344 1.586
-0.37232077 0.342087 1.569
-0.3616606 0.32814118 1.524
-0.35408452 0.31720296 1.492
-0.34911835 0.30874678 1.471
-0.34628782 0.30226874 1.459
-0.3436943 0.29605991 1.448
-0.34228745 0.29091913 1.442
-0.34135512 0.28620854 1.438
-0.34113485 0.28210819 1.437
-0.34091452 0.27801284 1.436
-0.34140638 0.27449515 1.438
-0.34189823 0.2709662 1.4400001
-0.34191522 0.26705503 1.4400001
-0.34169462 0.26296064 1.439
-0.34171143 0.25905129 1.439
-0.34172809 0.25514147 1.439
-0.34198222 0.25140584 1.4400001
-0.34176126 0.24732052 1.439
-0.34177762 0.24340934 1.439
-0.34108135 0.23899841 1.436
-0.34109747 0.23509447 1.436
-0.34111348 0.23119007 1.436
-0.34136692 0.2274435 1.437
-0.34185779 0.22384661 1.439
-0.34163582 0.21977986 1.438
-0.34117606 0.21556796 1.436
-0.34071618 0.21136652 1.434
-0.34096885 0.20760953 1.4349999
-0.34122142 0.20384663 1.436
-0.34147376 0.20007786 1.437
-0.34125072 0.19603015 1.436
-0.34150276 0.19225506 1.437
-0.34175459 0.18847407 1.438
-0.34153092 0.18443051 1.437
-0.34130701 0.18039195 1.436
-0.34084523 0.17623554 1.434
-0.34014541 0.1719694 1.431
-0.33944538 0.16771922 1.428
-0.33922049 0.16371439 1.427
-0.33899534 0.15971464 1.426
-0.33876991 0.15571992 1.425
-0.33854425 0.15173027 1.424
-0.33879384 0.14795333 1.425
-0.33904323 0.14417057 1.426
-0.33857903 0.14008686 1.424
-0.33740121 0.13572673 1.419
-0.33717418 0.1317652 1.418
-0.33742249 0.12798919 1.419
-0.33743268 0.12411989 1.419
-0.33791825 0.12041976 1.421
-0.33816576 0.1166264 1.4220001
-0.33912647 0.1130651 1.426
-0.33961123 0.10932855 1.428
-0.34009579 0.1055808 1.4299999
-0.34010437 0.10167964 1.4299999
-0.34035054 0.097846575 1.431
-0.3408342 0.094073407 1.433
-0.34203121 0.090477839 1.438
-0.34370363 0.086975105 1.4450001
-0.34632725 0.083663754 1.456
-0.34895068 0.080292135 1.467
-0.35109815 0.076756231 1.476
-0.35300753 0.073121712 1.484
-0.35539234 0.069536388 1.494
-0.35730115 0.065808646 1.502
-0.35920972 0.06203704 1.51
-0.36159372 0.058298267 1.52
-0.36588064 0.054789729 1.538
-0.37421155 0.051741932 1.573
-0.37850586 -0.038901299 1.591
-0.37636119 -0.043000881 1.582
-0.3742162 -0.047051188 1.573
-0.37230882 -0.051084854 1.5650001
-0.37040108 -0.055074688 1.557
-0.36873093 -0.059058771 1.55
-0.36777416 -0.063126959 1.546
-0.36681706 -0.067173131 1.5420001
-0.36657327 -0.071336143 1.541
-0.36585337 -0.075395435 1.538
-0.3651332 -0.07943815 1.535
-0.36465055 -0.083518721 1.533
-0.36440545 -0.087645359 1.5319999
-0.36439788 -0.091826223 1.5319999
-0.36415219 -0.095944166 1.531
-0.36438179 -0.10018717 1.5319999
-0.36461109 -0.10443534 1.533
-0.36507788 -0.10875954 1.535
-0.36506873 -0.11294718 1.535
-0.36601049 -0.11743975 1.539
-0.36623845 -0.12171671 1.54
-0.36670393 -0.12608056 1.5420001
-0.36693123 -0.13037047 1.543
-0.36763379 -0.13483991 1.546
-0.36857387 -0.13941532 1.55
-0.36927578 -0.1439195 1.553
-0.36950177 -0.14824885 1.554
-0.36996526 -0.15268138 1.556
-0.37019068 -0.15702359 1.557
-0.37112904 -0.16168158 1.561
-0.37230483 -0.16646723 1.566
-0.37371799 -0.17138876 1.572
-0.37465528 -0.17611903 1.576
-0.37559232 -0.18087068 1.58
-0.37724209 -0.18599527 1.587
-0.37391293 0.35188076 1.594
-0.36478314 0.33905318 1.5549999
-0.35729462 0.3279441 1.523
-0.35332453 0.32019746 1.506
-0.34935403 0.31254265 1.489
-0.34538308 0.30497968 1.472
-0.34211567 0.29812199 1.4579999
-0.34025592 0.29255047 1.45
-0.33909988 0.28761899 1.4450001
-0.33841309 0.28310695 1.442
-0.33819559 0.27899799 1.441
-0.33844739 0.2752758 1.442
-0.33846447 0.27135959 1.442
-0.33824673 0.26725739 1.441
-0.33802894 0.26316026 1.4400001
-0.33804578 0.25924808 1.4400001
-0.33782774 0.25515816 1.439
-0.33784437 0.25124779 1.439
-0.33786091 0.24733695 1.439
-0.33764249 0.24325652 1.438
-0.33718917 0.2390146 1.436
-0.33720529 0.23511054 1.436
-0.33722132 0.23120601 1.436
-0.33747208 0.22745933 1.437
-0.33748785 0.22355118 1.437
-0.33750343 0.21964255 1.437
-0.33681422 0.21528305 1.434
-0.33635974 0.21108688 1.432
-0.33684459 0.20747988 1.434
-0.3373293 0.20386146 1.436
-0.33757898 0.20009252 1.437
-0.33759359 0.19618116 1.437
-0.33760795 0.19226934 1.437
-0.33715224 0.18809494 1.4349999
-0.33669627 0.18393095 1.433
-0.33624011 0.17977747 1.431
-0.33601865 0.17575733 1.4299999
-0.33556193 0.17162204 1.428
-0.335105 0.16749722 1.426
-0.33511779 0.16361235 1.426
-0.33536538 0.15983909 1.427
-0.3351427 0.15584141 1.426
-0.33491975 0.15184878 1.425
-0.33493158 0.14796504 1.425
-0.33470809 0.1439798 1.424
-0.33448437 0.13999966 1.423
-0.33332011 0.13564196 1.418
-0.33333084 0.13177583 1.418
-0.33334133 0.12790935 1.418
-0.33405682 0.12430494 1.421
-0.33477205 0.12068384 1.424
-0.3354871 0.11704607 1.427
-0.33643693 0.11347087 1.431
-0.33691633 0.1097204 1.433
-0.33692524 0.10581106 1.433
-0.33716899 0.10197253 1.434
-0.33811781 0.098333389 1.438
-0.33977181 0.094869107 1.4450001
-0.34166071 0.091429278 1.4529999
-0.34354937 0.087945536 1.461
-0.34496754 0.084302939 1.467
-0.34638542 0.080627337 1.473
-0.34733269 0.076814741 1.477
-0.34851485 0.073029362 1.482
-0.35110778 0.06949576 1.493
-0.3537004 0.06590189 1.5039999
-0.35605761 0.062206686 1.5140001
-0.35770902 0.058341619 1.521
-0.36100638 0.054687541 1.535
-0.36830169 0.051516101 1.566
-0.37346661 -0.060511842 1.5880001
-0.37110943 -0.064439103 1.5779999
-0.36804652 -0.068180881 1.5650001
-0.36615917 -0.072082952 1.557
-0.36474189 -0.07603918 1.551
-0.36355945 -0.080014192 1.546
-0.3630822 -0.084125124 1.544
-0.36283976 -0.088282116 1.543
-0.36236185 -0.092373438 1.541
-0.36188364 -0.096453592 1.539
-0.36164027 -0.10058796 1.538
-0.36163169 -0.10478471 1.538
-0.36185795 -0.10905202 1.539
-0.36208382 -0.11332447 1.54
-0.36277962 -0.1177547 1.543
-0.36276972 -0.12196384 1.543
-0.36299467 -0.12625442 1.544
-0.36321926 -0.13055009 1.545
-0.36391371 -0.13502534 1.548
-0.36460781 -0.13951656 1.551
-0.36530161 -0.14402379 1.554
-0.36552489 -0.14835615 1.5549999
-0.3657479 -0.15269358 1.556
-0.36597064 -0.1570361 1.557
-0.36666313 -0.16159078 1.5599999
-0.36759031 -0.16626772 1.564
-0.36898726 -0.17118412 1.5700001
-0.36991373 -0.17590925 1.574
-0.3706049 -0.18054125 1.577
-0.37200075 -0.18554078 1.5829999
-0.37339628 -0.19057254 1.589
-0.37165883 0.35823473 1.603
-0.3647221 0.34726378 1.573
-0.35732099 0.33601913 1.541
-0.35200614 0.32688573 1.518
-0.34970537 0.3206408 1.508
-0.3471725 0.31423986 1.497
-0.3432478 0.30665499 1.48
-0.33955461 0.29936641 1.464
-0.33748469 0.29357666 1.455
-0.33634233 0.28863159 1.45
-0.3356638 0.2841059 1.447
-0.33521706 0.27978966 1.4450001
-0.33477023 0.27548382 1.443
-0.33455536 0.27137664 1.442
-0.33410835 0.26708889 1.4400001
-0.33412528 0.26317713 1.4400001
-0.33391008 0.25908482 1.439
-0.33369476 0.25499749 1.438
-0.33371139 0.25108975 1.438
-0.33396 0.24735343 1.439
-0.33397645 0.24344207 1.439
-0.33329645 0.23903084 1.436
-0.3333126 0.23512663 1.436
-0.3330965 0.23106097 1.4349999
-0.33311236 0.22715855 1.4349999
-0.33312812 0.22325568 1.4349999
-0.33291158 0.21919951 1.434
-0.33292699 0.21529841 1.434
-0.33271006 0.21124944 1.433
-0.33318952 0.20763956 1.4349999
-0.33320445 0.20373435 1.4349999
-0.33298698 0.19968945 1.434
-0.33276933 0.1956495 1.433
-0.33255142 0.19161458 1.432
-0.33233333 0.18758467 1.431
-0.33188275 0.18343134 1.429
-0.3316642 0.17941418 1.428
-0.33167768 0.17552488 1.428
-0.33145863 0.17151499 1.427
-0.3312394 0.16751014 1.426
-0.33148453 0.16373979 1.427
-0.33196163 0.16007559 1.429
-0.33174169 0.1560722 1.428
-0.33128911 0.1519673 1.426
-0.33106866 0.14797676 1.425
-0.33084786 0.14399126 1.424
-0.33062688 0.14001085 1.423
-0.32970849 0.13574851 1.419
-0.32995158 0.13197233 1.42
-0.33019444 0.12819032 1.421
-0.3306694 0.12449 1.423
-0.33160895 0.12094796 1.427
-0.3323158 0.11730172 1.4299999
-0.33325484 0.11371808 1.434
-0.33349642 0.1098826 1.4349999
-0.33397019 0.10611519 1.437
-0.33467606 0.1024077 1.4400001
-0.33654371 0.099025451 1.448
-0.33910847 0.095796257 1.459
-0.34120822 0.092380889 1.4680001
-0.34237796 0.088675328 1.473
-0.34308252 0.084827267 1.476
-0.34332198 0.080853112 1.477
-0.34332865 0.076821238 1.477
-0.34449726 0.073035561 1.482
-0.34706029 0.069501668 1.493
-0.35055298 0.06608279 1.508
-0.35334799 0.062458538 1.52
-0.35474798 0.058538407 1.526
-0.35684505 0.054692224 1.535
-0.36266142 0.051323116 1.5599999
-0.36844704 -0.073385477 1.585
-0.36518627 -0.077026233 1.571
-0.36308753 -0.080849119 1.562
-0.36168584 -0.084786095 1.556
-0.3609812 -0.088861749 1.553
-0.35981137 -0.092800841 1.548
-0.35957098 -0.0969631 1.5470001
-0.35933027 -0.10111962 1.546
-0.35932168 -0.10533852 1.546
-0.35908028 -0.10948624 1.545
-0.35907108 -0.1137018 1.545
-0.35906151 -0.11791705 1.545
-0.35905164 -0.12213197 1.545
-0.35904145 -0.12634653 1.545
-0.35949576 -0.13072976 1.5470001
-0.36041442 -0.135298 1.551
-0.36086804 -0.13970777 1.553
-0.36108893 -0.14403538 1.554
-0.36130953 -0.14836806 1.5549999
-0.36152986 -0.15270579 1.556
-0.36174986 -0.15704857 1.557
-0.3622019 -0.16149999 1.559
-0.36335063 -0.16628084 1.564
-0.36426663 -0.17097944 1.568
-0.36518234 -0.17569944 1.572
-0.36586538 -0.18032627 1.575
-0.36701271 -0.18520345 1.58
-0.36769512 -0.18986748 1.5829999
-0.36977091 -0.19528346 1.592
-0.37091714 -0.20024636 1.597
-0.36729303 0.36260146 1.603
-0.36181292 0.35289022 1.579
-0.35656142 0.34352952 1.556
-0.35130939 0.33429319 1.533
-0.34766099 0.32668865 1.517
-0.34538743 0.32044634 1.507
-0.34334284 0.31446785 1.498
-0.33969346 0.30708721 1.482
-0.33650219 0.30020204 1.4680001
-0.33422744 0.2941995 1.4579999
-0.33309874 0.28924614 1.4529999
-0.3321991 0.28451589 1.449
-0.3315286 0.28000051 1.446
-0.33085796 0.27550098 1.443
-0.3304165 0.27120548 1.441
-0.33020422 0.26710588 1.4400001
-0.32999182 0.26301125 1.439
-0.33000869 0.25910163 1.439
-0.33002546 0.25519156 1.439
-0.33027148 0.25145563 1.4400001
-0.33005863 0.24736995 1.439
-0.3298457 0.24328922 1.438
-0.32940325 0.23904705 1.436
-0.32918999 0.23497899 1.4349999
-0.32897663 0.2309159 1.434
-0.32899252 0.22701606 1.434
-0.32877877 0.22296019 1.433
-0.3287943 0.21906213 1.433
-0.32903922 0.21531376 1.434
-0.32928389 0.21155946 1.4349999
-0.329299 0.20765457 1.4349999
-0.32931393 0.20374916 1.4349999
-0.32864016 0.19942555 1.432
-0.32819566 0.19525431 1.4299999
-0.32775095 0.19109355 1.428
-0.32753554 0.18707432 1.427
-0.32709032 0.18293166 1.425
-0.32687443 0.17892514 1.424
-0.32711738 0.17516947 1.425
-0.32736018 0.17140792 1.426
-0.32783234 0.16775799 1.428
-0.32807475 0.16398197 1.429
-0.3283169 0.16020007 1.4299999
-0.32832924 0.15630302 1.4299999
-0.32788214 0.15219241 1.428
-0.32743475 0.1480923 1.426
-0.3267574 0.14390157 1.423
-0.32653907 0.13992362 1.4220001
-0.32586119 0.13575938 1.419
-0.32610157 0.13198295 1.42
-0.32634169 0.12820068 1.421
-0.32727054 0.12467508 1.425
-0.32819921 0.12112733 1.429
-0.32889798 0.11747539 1.432
-0.3293668 0.11372742 1.434
-0.33006504 0.11004481 1.437
-0.33076304 0.1063455 1.4400001
-0.33214986 0.10284291 1.446
-0.33422559 0.099512443 1.455
-0.33653086 0.096198231 1.465
-0.33814675 0.092640355 1.472
-0.33861378 0.088742971 1.474
-0.33931026 0.084891886 1.477
-0.33977669 0.080969416 1.479
-0.33978334 0.076931767 1.479
-0.34093839 0.073140308 1.484
-0.34347162 0.069600672 1.495
-0.34761289 0.066307537 1.513
-0.35014567 0.062628239 1.524
-0.35084006 0.058581758 1.527
-0.35199368 0.054590002 1.5319999
-0.35659346 0.05106429 1.552
-0.36624783 0.048092958 1.594
-0.36827841 -0.078601845 1.603
-0.36436602 -0.08209829 1.586
-0.36114267 -0.085665159 1.572
-0.35906765 -0.089441448 1.563
-0.35745192 -0.093288258 1.556
-0.3569845 -0.097410001 1.554
-0.35628706 -0.10145511 1.551
-0.35604873 -0.10561985 1.55
-0.35558036 -0.10970794 1.548
-0.35603049 -0.1140792 1.55
-0.35556155 -0.11815575 1.548
-0.35555166 -0.12237916 1.548
-0.35554147 -0.12660222 1.548
-0.35621998 -0.13107845 1.551
-0.35689816 -0.1355707 1.554
-0.35688704 -0.13980904 1.554
-0.3568756 -0.14404699 1.554
-0.35732317 -0.14847539 1.556
-0.35754076 -0.15281613 1.557
-0.35798767 -0.1572628 1.559
-0.35843429 -0.16171995 1.561
-0.35933983 -0.16640024 1.5650001
-0.36001539 -0.17099282 1.568
-0.36069065 -0.17560132 1.571
-0.36136562 -0.18022574 1.574
-0.36226982 -0.18498325 1.5779999
-0.36294413 -0.18964213 1.581
-0.36430687 -0.19468495 1.587
-0.36543965 -0.19963454 1.592
-0.36703119 -0.20486712 1.599
-0.36247399 0.36650988 1.601
-0.35705921 0.35673916 1.577
-0.35277605 0.34821567 1.558
-0.34962466 0.34089881 1.544
-0.3457936 0.33300319 1.527
-0.34264156 0.32584551 1.513
-0.34084803 0.32003927 1.505
-0.33950722 0.31469584 1.499
-0.33658084 0.30793399 1.4859999
-0.33274809 0.30042422 1.469
-0.33050051 0.29441884 1.459
-0.32915878 0.28926361 1.4529999
-0.32849661 0.28472963 1.45
-0.32806081 0.28040507 1.448
-0.32762492 0.27609095 1.446
-0.32696232 0.27159899 1.443
-0.32675281 0.26749387 1.442
-0.32631657 0.26321092 1.4400001
-0.32610682 0.25911844 1.439
-0.32612354 0.25520822 1.439
-0.3263669 0.25147226 1.4400001
-0.32638344 0.24755836 1.4400001
-0.32594651 0.24330559 1.438
-0.32573619 0.23922978 1.437
-0.32552567 0.23515883 1.436
-0.32508829 0.23093185 1.434
-0.32487744 0.22687353 1.433
-0.32466644 0.22282022 1.432
-0.32513544 0.21923052 1.434
-0.32515082 0.21532905 1.434
-0.32539281 0.21157464 1.4349999
-0.32518116 0.20752485 1.434
-0.32519606 0.20362203 1.434
-0.32453039 0.19930089 1.431
-0.32386452 0.1949956 1.428
-0.323652 0.19097391 1.427
-0.32321241 0.18682607 1.425
-0.32299945 0.18281703 1.424
-0.32278624 0.17881301 1.423
-0.32325333 0.1751828 1.425
-0.32372025 0.17154124 1.427
-0.32418698 0.16788837 1.429
-0.32442662 0.16410941 1.4299999
-0.32511982 0.16054863 1.433
-0.32513222 0.15664317 1.433
-0.32446361 0.15241753 1.4299999
-0.32379472 0.14820784 1.427
-0.32312554 0.14401411 1.424
-0.32313687 0.14013158 1.424
-0.322694 0.13605729 1.4220001
-0.32293168 0.13227241 1.423
-0.32316914 0.12848172 1.424
-0.32408711 0.12494767 1.428
-0.32500494 0.12139149 1.432
-0.32569554 0.1177311 1.4349999
-0.32593197 0.11389536 1.436
-0.3266221 0.11020703 1.439
-0.32776591 0.1066497 1.444
-0.32913649 0.10313594 1.45
-0.33118784 0.099794298 1.459
-0.33278498 0.09627191 1.466
-0.33460885 0.092773966 1.474
-0.33484349 0.088810608 1.475
-0.3355318 0.08495649 1.478
-0.33576578 0.080976225 1.479
-0.33622649 0.077042297 1.4809999
-0.33759499 0.073294356 1.487
-0.33987135 0.069699682 1.497
-0.34373674 0.066356987 1.5140001
-0.34646672 0.062715754 1.526
-0.34715301 0.058663487 1.529
-0.3476119 0.054559018 1.531
-0.35102215 0.050871223 1.546
-0.3592003 0.047734991 1.582
-0.3607389 -0.086598851 1.589
-0.35732618 -0.090078488 1.574
-0.3550483 -0.093775734 1.564
-0.35413226 -0.097794242 1.5599999
-0.35298893 -0.10172523 1.5549999
-0.35275331 -0.1059012 1.554
-0.35229042 -0.11000054 1.552
-0.3527351 -0.11438304 1.554
-0.35272551 -0.11862347 1.554
-0.35271564 -0.12286358 1.554
-0.35247841 -0.12702151 1.553
-0.35292184 -0.13142718 1.5549999
-0.352911 -0.13566893 1.5549999
-0.35289985 -0.13991028 1.5549999
-0.35288844 -0.14415126 1.5549999
-0.35310364 -0.14848725 1.556
-0.3537724 -0.15302461 1.559
-0.35421392 -0.15747704 1.561
-0.35465509 -0.16193992 1.563
-0.35532287 -0.16651964 1.566
-0.35576347 -0.17100619 1.568
-0.35643059 -0.17561498 1.571
-0.35709745 -0.18023969 1.574
-0.35753712 -0.18476303 1.576
-0.35843021 -0.18953672 1.58
-0.35886928 -0.19408634 1.582
-0.3602154 -0.19914801 1.5880001
-0.36133438 -0.20411377 1.5930001
-0.36358708 -0.20976049 1.603
-0.36055392 0.37778896 1.612
-0.35654694 0.36924872 1.594
-0.35186854 0.36011887 1.573
-0.34830821 0.35223362 1.557
-0.34564236 0.34532878 1.545
-0.34409493 0.33959264 1.538
-0.34098119 0.33236745 1.524
-0.33831456 0.3256484 1.512
-0.33699027 0.32027012 1.506
-0.33611339 0.31534383 1.502
-0.33344606 0.30878088 1.49
-0.32921183 0.30085099 1.471
-0.32676762 0.29463819 1.46
-0.32544222 0.28948015 1.454
-0.325012 0.28513971 1.452
-0.32435784 0.28061602 1.449
-0.32415122 0.27649003 1.448
-0.32349682 0.27199256 1.4450001
-0.32329002 0.26788193 1.444
-0.32285923 0.26359347 1.442
-0.3228761 0.25967547 1.442
-0.32266897 0.25557968 1.441
-0.32268563 0.25166348 1.441
-0.32225436 0.24740294 1.439
-0.32204682 0.24332199 1.438
-0.32183915 0.239246 1.437
-0.32163134 0.23517492 1.436
-0.32119936 0.23094776 1.434
-0.32121521 0.22704762 1.434
-0.32100689 0.22299145 1.433
-0.32124647 0.21924597 1.434
-0.32103786 0.21519423 1.433
-0.32105309 0.2112949 1.433
-0.32084408 0.20725039 1.432
-0.32108298 0.2034948 1.433
-0.32087362 0.19945478 1.432
-0.32021582 0.19514653 1.429
-0.31955782 0.19085422 1.426
-0.31912366 0.1867089 1.424
-0.31891334 0.18270236 1.423
-0.3191511 0.1789522 1.424
-0.31916445 0.17507316 1.424
-0.3194018 0.17131391 1.425
-0.31963891 0.16754879 1.426
-0.32009995 0.16389254 1.428
-0.32078502 0.16033702 1.431
-0.32102153 0.15654609 1.432
-0.3210336 0.15264268 1.432
-0.32014865 0.1483234 1.428
-0.3192634 0.14402552 1.424
-0.31882623 0.13994588 1.4220001
-0.3188372 0.13606815 1.4220001
-0.31907216 0.13228302 1.423
-0.31953105 0.12858227 1.425
-0.3206625 0.1251328 1.4299999
-0.32156947 0.1215709 1.434
-0.32270041 0.11806888 1.439
-0.32270986 0.11414263 1.439
-0.32361612 0.11052243 1.443
-0.32429785 0.10680621 1.446
-0.32565215 0.10328671 1.452
-0.32723051 0.099802569 1.459
-0.32880861 0.096279904 1.466
-0.33038652 0.09271875 1.473
-0.3308427 0.088818029 1.475
-0.33129856 0.084906116 1.477
-0.33175409 0.08098302 1.479
-0.33243367 0.077100791 1.482
-0.33378595 0.073349841 1.488
-0.33603513 0.069752142 1.498
-0.33963013 0.066362612 1.5140001
-0.34232751 0.062721081 1.526
-0.34278128 0.058630098 1.528
-0.34301043 0.054492384 1.529
-0.34593132 0.05074393 1.5420001
-0.35244137 0.047407124 1.571
-0.35866445 -0.091516867 1.599
-0.35551643 -0.095042817 1.585
-0.35348964 -0.098805495 1.576
-0.35146266 -0.10251876 1.567
-0.35033259 -0.1064552 1.562
-0.35009935 -0.11064757 1.561
-0.35031435 -0.11498135 1.562
-0.35030472 -0.11924394 1.562
-0.35007051 -0.1234271 1.561
-0.3493875 -0.12744084 1.558
-0.34960124 -0.13177598 1.559
-0.34959039 -0.13602892 1.559
-0.34935498 -0.14019151 1.558
-0.3493436 -0.14444096 1.558
-0.34978029 -0.14888087 1.5599999
-0.35021672 -0.15333128 1.562
-0.35042855 -0.15769129 1.563
-0.35064018 -0.16205633 1.564
-0.35107562 -0.16653271 1.566
-0.351735 -0.17112862 1.569
-0.35216981 -0.17562863 1.571
-0.35282856 -0.18025362 1.574
-0.35326281 -0.18477722 1.576
-0.35414508 -0.18955119 1.58
-0.35457876 -0.1941011 1.582
-0.35568449 -0.19903764 1.587
-0.35678992 -0.20400092 1.592
-0.35856736 -0.20938356 1.6
-0.3601203 -0.21467565 1.607
-0.35594133 0.3819412 1.6109999
-0.35109955 0.37241766 1.589
-0.34692022 0.36370799 1.5700001
-0.34362441 0.35601667 1.5549999
-0.34143323 0.34953752 1.545
-0.34034684 0.34422982 1.54
-0.33881837 0.33850718 1.533
-0.33596352 0.33151343 1.52
-0.33377153 0.32523593 1.51
-0.33268458 0.32007569 1.505
-0.33226067 0.31557193 1.503
-0.33028913 0.30962783 1.494
-0.32610652 0.30168688 1.475
-0.32324997 0.29505944 1.462
-0.32149866 0.28949761 1.454
-0.32107386 0.28515711 1.452
-0.3208701 0.28102067 1.451
-0.32044509 0.27669823 1.449
-0.32001996 0.27238616 1.447
-0.31959477 0.2680845 1.4450001
-0.31916937 0.26379317 1.443
-0.31918624 0.25987238 1.443
-0.31898186 0.25577378 1.442
-0.31877732 0.25168011 1.441
-0.31835142 0.2474194 1.439
-0.31814656 0.24333833 1.438
-0.31794161 0.23926219 1.437
-0.31795779 0.23535478 1.437
-0.31753117 0.23112471 1.4349999
-0.3173258 0.22706342 1.434
-0.31712016 0.22300705 1.433
-0.31713569 0.21910855 1.433
-0.31692973 0.21505934 1.432
-0.31694493 0.21116258 1.432
-0.31695995 0.20726532 1.432
-0.31741747 0.20365159 1.434
-0.31721076 0.19960861 1.433
-0.31678253 0.19543405 1.431
-0.31613263 0.19113606 1.428
-0.3157039 0.18698505 1.426
-0.31527492 0.18284446 1.424
-0.31528848 0.17896567 1.424
-0.31530187 0.17508644 1.424
-0.31509361 0.17108653 1.423
-0.31554937 0.16744412 1.425
-0.31600499 0.1637904 1.427
-0.31690329 0.16034943 1.431
-0.31713706 0.15655826 1.432
-0.3171491 0.1526546 1.432
-0.31671792 0.14854279 1.4299999
-0.31562203 0.14413802 1.425
-0.31519029 0.14005542 1.423
-0.31542277 0.13627039 1.424
-0.31543347 0.13238658 1.424
-0.31610849 0.12877311 1.427
-0.31700477 0.1252304 1.431
-0.31834397 0.1218351 1.437
-0.31946135 0.11832464 1.442
-0.31947082 0.11438993 1.442
-0.32014468 0.11068468 1.4450001
-0.32037511 0.10681498 1.446
-0.32149154 0.10322408 1.451
-0.32305089 0.099742398 1.4579999
-0.32527477 0.09641926 1.4680001
-0.32705519 0.092915297 1.476
-0.32750595 0.089006089 1.478
-0.32751319 0.084970698 1.478
-0.32774174 0.080989808 1.479
-0.32863477 0.077159308 1.483
-0.33019227 0.073454596 1.49
-0.33241436 0.069851145 1.5
-0.33530107 0.066324376 1.513
-0.33774427 0.062644176 1.524
-0.33819264 0.058558319 1.526
-0.33864066 0.054461367 1.528
-0.34130463 0.050682422 1.54
-0.3468495 0.047230087 1.5650001
-0.35638347 0.04413506 1.608
-0.35630485 -0.10082009 1.608
-0.35252947 -0.10409756 1.591
-0.34986186 -0.10762271 1.579
-0.34896654 -0.11164912 1.575
-0.3487356 -0.11587421 1.574
-0.34806129 -0.11994082 1.571
-0.34716514 -0.12391161 1.567
-0.34671178 -0.12802385 1.5650001
-0.34647971 -0.1322093 1.564
-0.34646887 -0.1364762 1.564
-0.34601471 -0.14056274 1.562
-0.34600323 -0.14482339 1.562
-0.34599155 -0.14908364 1.562
-0.34642249 -0.15353979 1.564
-0.34663168 -0.15790555 1.5650001
-0.34661907 -0.1621727 1.5650001
-0.34682769 -0.16654575 1.566
-0.34725744 -0.17103288 1.568
-0.34790838 -0.17564225 1.571
-0.34855899 -0.18026751 1.574
-0.34898785 -0.1847914 1.576
-0.3498593 -0.18956566 1.58
-0.35050893 -0.1942385 1.5829999
-0.35160118 -0.19917807 1.5880001
-0.35247168 -0.20401622 1.592
-0.35378462 -0.20913741 1.598
-0.35487583 -0.21415715 1.603
-0.35574538 -0.21906726 1.607
-0.35705736 -0.22427675 1.613
-0.35242492 0.3872866 1.615
-0.34611547 0.3760331 1.586
-0.34198782 0.36728024 1.567
-0.33938757 0.36025172 1.5549999
-0.33744189 0.35397476 1.546
-0.33636916 0.34865123 1.541
-0.335078 0.34313074 1.535
-0.33335018 0.33720076 1.527
-0.33053055 0.33022317 1.5140001
-0.32880229 0.32439265 1.506
-0.32772884 0.31924316 1.501
-0.32752863 0.31496024 1.5
-0.32667336 0.31006044 1.4960001
-0.32319739 0.30272737 1.48
-0.3199394 0.29568252 1.465
-0.31799141 0.2899133 1.456
-0.31735361 0.28537092 1.4529999
-0.31715259 0.28123167 1.452
-0.31673303 0.27690646 1.45
-0.31631333 0.27259156 1.448
-0.3158935 0.26828703 1.446
-0.31591052 0.26435855 1.446
-0.31592742 0.26042953 1.446
-0.31572574 0.25632268 1.4450001
-0.31530541 0.25204602 1.443
-0.31466645 0.24760786 1.4400001
-0.31424579 0.24335468 1.438
-0.31404349 0.23927839 1.437
-0.31427819 0.23553465 1.438
-0.31385705 0.23130172 1.436
-0.31365433 0.22723751 1.4349999
-0.31323281 0.22302262 1.433
-0.31346691 0.21927689 1.434
-0.31304508 0.21507461 1.432
-0.31327879 0.21132512 1.433
-0.31329381 0.20742497 1.433
-0.31374592 0.20380837 1.4349999
-0.31354195 0.19976249 1.434
-0.31333771 0.19572155 1.433
-0.31269598 0.19141789 1.4299999
-0.31205398 0.18713009 1.427
-0.3116304 0.18298656 1.425
-0.31186265 0.17923054 1.426
-0.31187603 0.17534561 1.426
-0.31145173 0.17121977 1.424
-0.31168333 0.16745694 1.425
-0.31169602 0.16357341 1.425
-0.3123647 0.16002564 1.428
-0.31303319 0.15646109 1.431
-0.31326398 0.15266655 1.432
-0.3128382 0.14855444 1.4299999
-0.31175584 0.14414939 1.425
-0.31132948 0.14006649 1.423
-0.31177801 0.13637692 1.425
-0.3122263 0.13267606 1.427
-0.31289315 0.12905416 1.4299999
-0.31377864 0.12550305 1.434
-0.3151015 0.12209932 1.4400001
-0.31598648 0.11849836 1.444
-0.3162148 0.11463724 1.4450001
-0.31666163 0.11084692 1.447
-0.31688935 0.10697147 1.448
-0.3177734 0.10330372 1.452
-0.318876 0.099682197 1.457
-0.32107267 0.096361533 1.467
-0.32239369 0.092734143 1.473
-0.3230578 0.088893034 1.476
-0.32306501 0.084862776 1.476
-0.32372859 0.080996566 1.479
-0.32482961 0.077217795 1.484
-0.32636818 0.073510066 1.4910001
-0.32878196 0.069950163 1.502
-0.33119559 0.066329949 1.513
-0.33339003 0.062608346 1.523
-0.33405185 0.058563273 1.526
-0.33471337 0.054501623 1.529
-0.33690694 0.0506538 1.539
-0.34150824 0.047083177 1.5599999
-0.34961203 0.043836862 1.597
-0.3521432 -0.1096765 1.609
-0.34907007 -0.11307617 1.595
-0.34752873 -0.11691443 1.5880001
-0.3457683 -0.12063779 1.58
-0.34444529 -0.12447528 1.574
-0.34399736 -0.12860692 1.572
-0.34376797 -0.13281177 1.571
-0.34353828 -0.1370108 1.5700001
-0.34287071 -0.14102399 1.567
-0.34264043 -0.14520584 1.566
-0.34262872 -0.14947729 1.566
-0.34283549 -0.15384649 1.567
-0.34304196 -0.15822071 1.568
-0.34281057 -0.16239268 1.567
-0.34301648 -0.16677147 1.568
-0.34344086 -0.17126434 1.5700001
-0.34430239 -0.17599127 1.574
-0.34494489 -0.18062499 1.577
-0.34514958 -0.18504006 1.5779999
-0.34579143 -0.18970007 1.581
-0.34643307 -0.19437593 1.584
-0.34729305 -0.19919308 1.5880001
-0.34793401 -0.20390333 1.591
-0.34879336 -0.20876031 1.595
-0.34987113 -0.21377216 1.6
-0.35094851 -0.21881072 1.605
-0.35202557 -0.22387595 1.61
-0.35332099 -0.22910966 1.6160001
-0.35061023 0.39459345 1.627
-0.3437334 0.3825095 1.595
-0.33771792 0.37154701 1.567
-0.3349348 0.36425191 1.554
-0.33366019 0.35864866 1.548
-0.33260107 0.35330647 1.543
-0.3315419 0.34799102 1.538
-0.33026701 0.34247869 1.5319999
-0.32812965 0.33611506 1.522
-0.32534528 0.32915092 1.5089999
-0.32385424 0.32354924 1.502
-0.32300994 0.31862324 1.498
-0.32302806 0.31455842 1.498
-0.32261491 0.31007856 1.4960001
-0.32047626 0.30397257 1.4859999
-0.31704339 0.29670939 1.47
-0.3146885 0.29052821 1.459
-0.31341177 0.28538832 1.4529999
-0.31342915 0.2814427 1.4529999
-0.31301498 0.27711463 1.451
-0.3126007 0.27279696 1.449
-0.31218633 0.26848963 1.447
-0.31198755 0.26437548 1.446
-0.31178868 0.26026627 1.4450001
-0.31180546 0.2563394 1.4450001
-0.31182212 0.25241199 1.4450001
-0.31162292 0.24831215 1.444
-0.31120768 0.24404795 1.442
-0.31100816 0.23996069 1.441
-0.31102431 0.23604211 1.441
-0.31082445 0.23196197 1.4400001
-0.31040856 0.22772835 1.438
-0.3097766 0.2233495 1.4349999
-0.30957624 0.21929231 1.434
-0.30937564 0.21524003 1.433
-0.3096067 0.21148768 1.434
-0.30983758 0.20772938 1.4349999
-0.31006834 0.20396514 1.436
-0.30986699 0.19991635 1.4349999
-0.30988145 0.19600907 1.4349999
-0.30967975 0.19196747 1.434
-0.30904585 0.18766853 1.431
-0.30841178 0.18338548 1.428
-0.30842531 0.17949536 1.428
-0.30887061 0.17585072 1.4299999
-0.30845177 0.17171377 1.428
-0.30824867 0.16770476 1.427
-0.3080453 0.16370076 1.426
-0.3084898 0.16003798 1.428
-0.30936617 0.15658255 1.432
-0.30959418 0.15278505 1.433
-0.30917385 0.14866997 1.431
-0.30810499 0.1442619 1.426
-0.30768406 0.140176 1.424
-0.3083432 0.13657916 1.427
-0.30878606 0.1328726 1.429
-0.30987692 0.1294255 1.434
-0.31075156 0.12586321 1.438
-0.31205812 0.12244833 1.444
-0.31250003 0.11867208 1.446
-0.31229341 0.11464655 1.4450001
-0.31273475 0.11085594 1.447
-0.31317589 0.1070541 1.449
-0.31448132 0.10352563 1.455
-0.31557029 0.099895649 1.46
-0.31752369 0.096500844 1.469
-0.31861228 0.09280476 1.474
-0.31883594 0.088840164 1.475
-0.31927544 0.084927335 1.477
-0.31993082 0.081058078 1.48
-0.32123443 0.077328302 1.4859999
-0.322754 0.073614821 1.493
-0.32535413 0.070095748 1.505
-0.32795405 0.066510893 1.517
-0.32968897 0.062695839 1.525
-0.33012643 0.058606576 1.527
-0.33099601 0.054577515 1.531
-0.33251381 0.05062516 1.538
-0.33684194 0.047026798 1.558
-0.34354806 0.043620963 1.589
-0.35014498 -0.11485794 1.62
-0.34710953 -0.1182493 1.6059999
-0.3445062 -0.12171663 1.594
-0.34276721 -0.12543444 1.586
-0.34167632 -0.12935366 1.581
-0.34101743 -0.13341428 1.5779999
-0.34057432 -0.13754544 1.576
-0.33969876 -0.14148527 1.572
-0.33925515 -0.14558832 1.5700001
-0.33924344 -0.14987099 1.5700001
-0.3394475 -0.15425138 1.571
-0.33943516 -0.15853588 1.571
-0.33942261 -0.16281995 1.571
-0.33940977 -0.16710357 1.571
-0.3398287 -0.1716049 1.573
-0.34024736 -0.17611668 1.575
-0.34109771 -0.18086794 1.579
-0.34108374 -0.18517147 1.579
-0.3415015 -0.18971448 1.581
-0.34191898 -0.19426787 1.5829999
-0.34276816 -0.19908258 1.587
-0.34318507 -0.20366222 1.589
-0.34424958 -0.20864493 1.594
-0.34531382 -0.21365431 1.599
-0.3463777 -0.2186904 1.604
-0.34744123 -0.22375318 1.609
-0.34850448 -0.22884263 1.614
-0.34978336 -0.23410331 1.62
-0.35084596 -0.2392488 1.625
-0.34385529 0.39194486 1.6160001
-0.33642673 0.37917089 1.581
-0.3311255 0.36895749 1.556
-0.329016 0.36239532 1.546
-0.32839608 0.35750881 1.543
-0.32777616 0.35263819 1.54
-0.32673049 0.34733078 1.535
-0.325259 0.34160298 1.528
-0.32336158 0.33547097 1.5190001
-0.32082531 0.32873291 1.507
-0.31956616 0.32335201 1.501
-0.31873268 0.3184287 1.497
-0.31853783 0.31415653 1.4960001
-0.31813008 0.30968204 1.494
-0.31687039 0.30439964 1.488
-0.31369385 0.29733264 1.473
-0.31115583 0.29094395 1.461
-0.30968243 0.28560212 1.454
-0.30969977 0.28165373 1.454
-0.30929106 0.27732286 1.452
-0.30888221 0.27300239 1.45
-0.3084732 0.2686922 1.448
-0.30827713 0.26457524 1.447
-0.30786791 0.26028308 1.4450001
-0.30767155 0.25617871 1.444
-0.30790129 0.25242862 1.4450001
-0.30813089 0.24867253 1.446
-0.30793425 0.24457207 1.4450001
-0.30752429 0.24030992 1.443
-0.30732727 0.23622195 1.442
-0.30691698 0.23197785 1.4400001
-0.30693284 0.22806084 1.4400001
-0.30652213 0.22383198 1.438
-0.30632448 0.21976648 1.437
-0.30591339 0.21555565 1.4349999
-0.30592853 0.21165021 1.4349999
-0.30594349 0.20774427 1.4349999
-0.30617148 0.20397986 1.436
-0.30597281 0.19993085 1.4349999
-0.30620047 0.19616 1.436
-0.30578822 0.19198158 1.434
-0.30537573 0.18781358 1.432
-0.3051762 0.18378438 1.431
-0.30540302 0.18001162 1.432
-0.30562964 0.17623292 1.433
-0.30521619 0.17208754 1.431
-0.30480251 0.1679526 1.429
-0.30460182 0.16394289 1.428
-0.30461425 0.16005029 1.428
-0.30547971 0.15659465 1.432
-0.30591831 0.15290353 1.434
-0.30550337 0.14878547 1.432
-0.30466142 0.14447553 1.428
-0.30445924 0.14048235 1.427
-0.30489686 0.13678139 1.429
-0.30554765 0.13316211 1.432
-0.30662495 0.12970659 1.437
-0.30748865 0.12613587 1.441
-0.3083522 0.12254298 1.4450001
-0.30857524 0.11868165 1.446
-0.30858466 0.11473516 1.446
-0.30902055 0.11094154 1.448
-0.30966964 0.10721057 1.451
-0.31117219 0.10374755 1.4579999
-0.31246108 0.10017755 1.464
-0.31374976 0.096574478 1.47
-0.31461123 0.092812397 1.474
-0.31461871 0.088787258 1.474
-0.31505278 0.084876858 1.476
-0.31591347 0.081064805 1.48
-0.31741425 0.077386782 1.487
-0.31934169 0.073768891 1.4960001
-0.32190922 0.07024134 1.508
-0.32404965 0.066560306 1.518
-0.32533589 0.062659979 1.524
-0.32576787 0.058573119 1.526
-0.32684007 0.054582108 1.531
-0.32833883 0.050629422 1.538
-0.33175874 0.046910018 1.554
-0.33709973 0.043350104 1.579
-0.34542936 0.039999526 1.618
-0.34636861 -0.12394112 1.623
-0.34379753 -0.12742196 1.6109999
-0.34079951 -0.13067327 1.597
-0.33929506 -0.13443965 1.59
-0.33800381 -0.1382547 1.584
-0.33735248 -0.14230664 1.581
-0.33670089 -0.1463418 1.5779999
-0.33647579 -0.1505511 1.577
-0.33646378 -0.15485269 1.577
-0.33645147 -0.15915385 1.577
-0.33622554 -0.16335091 1.576
-0.33599934 -0.16754206 1.575
-0.33598626 -0.17183636 1.575
-0.33639947 -0.17635386 1.577
-0.3370257 -0.18099634 1.58
-0.33722505 -0.18542011 1.581
-0.33785072 -0.19008885 1.584
-0.33804947 -0.19452798 1.585
-0.33846125 -0.19909747 1.587
-0.33887279 -0.20367737 1.589
-0.33971056 -0.20852947 1.5930001
-0.34076127 -0.2135364 1.598
-0.34181163 -0.21857004 1.603
-0.34286168 -0.22363037 1.608
-0.34348494 -0.22843374 1.6109999
-0.34474763 -0.23368652 1.617
-0.34579673 -0.23882411 1.622
-0.34705874 -0.2441383 1.628
-0.34386232 0.401494 1.637
-0.33757967 0.38978109 1.607
-0.33087626 0.37775072 1.575
-0.32648316 0.36850184 1.554
-0.32440078 0.36194506 1.544
-0.32357886 0.35683224 1.54
-0.32296702 0.35196975 1.5369999
-0.32151461 0.3462179 1.53
-0.31985188 0.34028 1.522
-0.31839916 0.33460587 1.515
-0.3167361 0.32875118 1.507
-0.31570339 0.32358563 1.502
-0.31467056 0.31844679 1.497
-0.31405798 0.31375459 1.494
-0.31386581 0.30949277 1.493
-0.31304285 0.30462214 1.489
-0.3103275 0.29795593 1.476
-0.30761182 0.29135978 1.4630001
-0.30615738 0.28601235 1.456
-0.30575421 0.28167105 1.454
-0.30514053 0.27714908 1.451
-0.30473706 0.2728312 1.449
-0.30433348 0.26852363 1.447
-0.30414009 0.2644093 1.446
-0.30373621 0.26011971 1.444
-0.30354252 0.25601792 1.443
-0.3037695 0.25227046 1.444
-0.30420673 0.24868901 1.446
-0.30443352 0.24492691 1.447
-0.30402899 0.24065922 1.4450001
-0.30362427 0.23640183 1.443
-0.30321935 0.23215483 1.441
-0.30281428 0.22791818 1.439
-0.30282989 0.22400321 1.439
-0.30242443 0.21978186 1.437
-0.30243972 0.21587129 1.437
-0.30203384 0.21166521 1.4349999
-0.30225924 0.20790388 1.436
-0.30248445 0.20413658 1.437
-0.30228853 0.20008466 1.436
-0.3023029 0.19617429 1.436
-0.30231705 0.19226344 1.436
-0.30212051 0.18822093 1.4349999
-0.30192369 0.18418333 1.434
-0.30172667 0.18015076 1.433
-0.30195054 0.17636913 1.434
-0.30175307 0.17234105 1.433
-0.30134475 0.1682004 1.431
-0.30114678 0.16418502 1.4299999
-0.30115914 0.16028671 1.4299999
-0.30201375 0.15682542 1.434
-0.30223629 0.15302199 1.4349999
-0.30203739 0.14900485 1.434
-0.30120626 0.14468917 1.4299999
-0.30100676 0.14069028 1.429
-0.30122828 0.13688786 1.4299999
-0.30187091 0.13326564 1.433
-0.30272397 0.1297169 1.437
-0.30378744 0.12623347 1.442
-0.30464002 0.12263757 1.446
-0.30507106 0.11885533 1.448
-0.30486977 0.11482374 1.447
-0.30508953 0.11095051 1.448
-0.30594116 0.10729316 1.452
-0.30784604 0.10396948 1.461
-0.30932936 0.10045946 1.4680001
-0.30975884 0.096582375 1.47
-0.30997726 0.092631102 1.471
-0.31019548 0.088674083 1.472
-0.31125626 0.084941365 1.477
-0.31231678 0.081181057 1.482
-0.31400925 0.077549323 1.49
-0.31591225 0.073922954 1.499
-0.31823647 0.070340343 1.51
-0.31971747 0.066522002 1.517
-0.32077661 0.062582962 1.522
-0.32183543 0.058616396 1.527
-0.3231048 0.054657985 1.533
-0.32437378 0.050666593 1.539
-0.32690713 0.046823386 1.551
-0.33049402 0.043051723 1.568
-0.33766386 0.039607316 1.602
-0.34299523 -0.13322052 1.628
-0.3400349 -0.13647984 1.614
-0.3374958 -0.13983692 1.602
-0.33600989 -0.1435782 1.595
-0.33473441 -0.14737359 1.589
-0.33409065 -0.15142222 1.586
-0.33344668 -0.15545404 1.5829999
-0.33364502 -0.15987279 1.584
-0.33342177 -0.1640892 1.5829999
-0.33319828 -0.16829969 1.582
-0.33297455 -0.17250426 1.581
-0.33317176 -0.17692657 1.582
-0.33336866 -0.18135382 1.5829999
-0.33356532 -0.18578607 1.584
-0.33418286 -0.19046324 1.587
-0.33437896 -0.19491081 1.5880001
-0.33457479 -0.19936331 1.589
-0.33498088 -0.20394886 1.591
-0.33580783 -0.20880668 1.595
-0.33642393 -0.21355207 1.598
-0.33725023 -0.21844961 1.602
-0.33807626 -0.22336839 1.6059999
-0.33848101 -0.22802478 1.608
-0.33951694 -0.23312512 1.613
-0.34076309 -0.23839933 1.619
-0.34200889 -0.2437056 1.625
-0.34283346 -0.24873862 1.6289999
-0.34365779 -0.25379279 1.633
-0.33859059 0.40053228 1.633
-0.33197463 0.38834482 1.601
-0.32618743 0.3772898 1.573
-0.32185128 0.36804616 1.552
-0.31958857 0.36126027 1.541
-0.31857011 0.35592395 1.536
-0.31796637 0.35107225 1.533
-0.3167403 0.34555751 1.527
-0.31509924 0.33962768 1.5190001
-0.31366542 0.33396161 1.512
-0.31243896 0.32855123 1.506
-0.31141979 0.32338837 1.501
-0.31040049 0.31825218 1.4960001
-0.30958855 0.31335261 1.492
-0.30939901 0.30909616 1.4910001
-0.30858684 0.30423087 1.487
-0.3069444 0.29857931 1.479
-0.30447158 0.29217395 1.467
-0.30303615 0.28681555 1.46
-0.30243078 0.28226951 1.457
-0.30161771 0.27754828 1.4529999
-0.30101207 0.27303657 1.45
-0.30061385 0.26872617 1.448
-0.30042315 0.26460901 1.447
-0.30002469 0.26031661 1.4450001
-0.29983369 0.256212 1.444
-0.29964259 0.2521123 1.443
-0.29965901 0.24818945 1.443
-0.29988301 0.2444354 1.444
-0.29969147 0.24034224 1.443
-0.29929215 0.23609015 1.441
-0.29889262 0.23184842 1.439
-0.29870063 0.22777544 1.438
-0.29892388 0.22401874 1.439
-0.29893929 0.2201031 1.439
-0.29895452 0.21618693 1.439
-0.29855406 0.21197523 1.437
-0.29836118 0.2079187 1.436
-0.29858369 0.20415123 1.437
-0.29818261 0.19995975 1.4349999
-0.2979891 0.19591528 1.434
-0.29821101 0.19214356 1.4349999
-0.2982249 0.18823475 1.4349999
-0.29823864 0.18432543 1.4349999
-0.29825211 0.1804156 1.4349999
-0.29826537 0.17650531 1.4349999
-0.29827845 0.17259453 1.4349999
-0.29808342 0.16856577 1.434
-0.29809603 0.16465677 1.434
-0.2979005 0.16063526 1.433
-0.29791263 0.15672809 1.433
-0.29792449 0.1528205 1.433
-0.29793614 0.14891246 1.433
-0.29773957 0.14490281 1.432
-0.29775071 0.14099666 1.432
-0.29776156 0.13709007 1.432
-0.29818803 0.13336913 1.434
-0.29903021 0.12981743 1.438
-0.2998721 0.12624349 1.442
-0.30071381 0.12264734 1.446
-0.30113938 0.11886483 1.448
-0.30114871 0.11491231 1.448
-0.30157375 0.1111127 1.45
-0.30241445 0.10744962 1.454
-0.30408695 0.10404907 1.462
-0.30513519 0.10039917 1.467
-0.30555919 0.096524529 1.469
-0.3057749 0.092575692 1.47
-0.30640632 0.088741586 1.473
-0.30745351 0.08500585 1.478
-0.30850047 0.081242524 1.483
-0.30996317 0.077555723 1.49
-0.31204975 0.073978387 1.5
-0.31371996 0.070253 1.508
-0.31455773 0.066308245 1.512
-0.31581134 0.062423676 1.518
-0.31727266 0.058544498 1.525
-0.3189418 0.054662541 1.533
-0.32019448 0.050670821 1.539
-0.321863 0.046706539 1.5470001
-0.32457143 0.042835657 1.5599999
-0.32977638 0.039190292 1.585
-0.33851808 0.035782024 1.627
-0.33980063 -0.14264148 1.6339999
-0.33750176 -0.14611024 1.623
-0.33499479 -0.14942577 1.6109999
-0.33311144 -0.15296182 1.602
-0.33164385 -0.15664473 1.595
-0.33121568 -0.16079366 1.5930001
-0.33099508 -0.16503489 1.592
-0.33098221 -0.16937661 1.592
-0.33055326 -0.17349958 1.59
-0.33012408 -0.17761117 1.5880001
-0.32990253 -0.18182591 1.587
-0.33009648 -0.1862693 1.5880001
-0.33049801 -0.19083765 1.59
-0.33048359 -0.19517089 1.59
-0.3306767 -0.19962907 1.591
-0.33128527 -0.20434855 1.594
-0.33168569 -0.20895293 1.596
-0.33229366 -0.21370131 1.599
-0.33290139 -0.21846546 1.602
-0.33350885 -0.22324543 1.605
-0.33432376 -0.22818296 1.609
-0.33513844 -0.23314172 1.613
-0.33636832 -0.23841617 1.619
-0.33739015 -0.24357276 1.624
-0.33778846 -0.24829786 1.626
-0.33880973 -0.25349951 1.631
-0.33962297 -0.25856963 1.635
-0.34064367 -0.26382178 1.64
-0.33252159 0.39858934 1.625
-0.32640168 0.38690841 1.595
-0.32150897 0.37682885 1.571
-0.31743449 0.36782756 1.551
-0.31499696 0.36080992 1.539
-0.31399196 0.35547891 1.534
-0.31360105 0.3508617 1.5319999
-0.31259593 0.3455759 1.527
-0.31077185 0.33942243 1.518
-0.30935702 0.33375901 1.511
-0.30814677 0.32835126 1.505
-0.30734587 0.32340649 1.501
-0.3063401 0.31827018 1.4960001
-0.30553898 0.31337056 1.492
-0.30494255 0.30869943 1.489
-0.30455083 0.30424875 1.487
-0.30354449 0.29920268 1.482
-0.30151388 0.29318732 1.472
-0.2996878 0.2874223 1.4630001
-0.29868087 0.28248054 1.4579999
-0.29787859 0.27775645 1.454
-0.29728106 0.27324188 1.451
-0.29668334 0.26874307 1.448
-0.29649532 0.26462585 1.447
-0.29630715 0.26051345 1.446
-0.29632378 0.25658345 1.446
-0.29613537 0.25247818 1.4450001
-0.29594681 0.2483778 1.444
-0.29596308 0.24445163 1.444
-0.29577425 0.24035832 1.443
-0.29538026 0.23610608 1.441
-0.29498613 0.2318642 1.439
-0.29479674 0.22779103 1.438
-0.29501727 0.22403421 1.439
-0.29503262 0.22011839 1.439
-0.29525283 0.21635228 1.4400001
-0.29506284 0.21228524 1.439
-0.29466757 0.20807827 1.437
-0.29427207 0.20388164 1.4349999
-0.29428652 0.19997412 1.4349999
-0.2940957 0.19592947 1.434
-0.2943148 0.19215755 1.4349999
-0.29432866 0.18824852 1.4349999
-0.29454744 0.18446745 1.436
-0.29435575 0.18042897 1.4349999
-0.29457411 0.17664148 1.436
-0.29479229 0.17284803 1.437
-0.29501024 0.16904867 1.438
-0.29481769 0.16501375 1.437
-0.29441962 0.16087165 1.4349999
-0.29402137 0.15674005 1.433
-0.29382804 0.15272558 1.432
-0.29363438 0.14871609 1.431
-0.29364571 0.14481284 1.431
-0.29386199 0.14100762 1.432
-0.29407802 0.13719653 1.433
-0.29470429 0.13356562 1.436
-0.29574075 0.13009849 1.441
-0.29657179 0.12651613 1.4450001
-0.2971974 0.12282673 1.448
-0.29741222 0.11895639 1.449
-0.29783204 0.11515959 1.451
-0.2982516 0.11135151 1.4529999
-0.2988762 0.10760608 1.456
-0.30011633 0.10405746 1.462
-0.30115095 0.10040728 1.467
-0.30136424 0.096466646 1.4680001
-0.30178246 0.092583224 1.47
-0.30240571 0.088748828 1.473
-0.30384991 0.085127838 1.48
-0.30488324 0.081358753 1.485
-0.3063269 0.077666201 1.492
-0.30777031 0.073935144 1.499
-0.3094188 0.070212193 1.507
-0.31065637 0.06635759 1.513
-0.31230429 0.062552221 1.521
-0.31395194 0.058702923 1.529
-0.31498331 0.054702736 1.534
-0.31601435 0.050675031 1.539
-0.31766108 0.046710417 1.5470001
-0.31992355 0.042784307 1.558
-0.32382852 0.038995747 1.577
-0.3301973 0.035367116 1.608
-0.33739236 -0.15249862 1.6440001
-0.33430198 -0.15555198 1.6289999
-0.33141673 -0.15862125 1.615
-0.32976264 -0.16221936 1.607
-0.32872397 -0.16608435 1.602
-0.32830068 -0.1702408 1.6
-0.32787716 -0.17438586 1.598
-0.32704303 -0.17829581 1.594
-0.32661906 -0.18241259 1.592
-0.3268103 -0.18686987 1.5930001
-0.32700124 -0.19133206 1.594
-0.32678172 -0.19555372 1.5930001
-0.32697216 -0.20002028 1.594
-0.32757258 -0.20474824 1.597
-0.32817277 -0.209492 1.6
-0.32815731 -0.21385053 1.6
-0.32855183 -0.21848129 1.602
-0.32915118 -0.22326148 1.605
-0.32975027 -0.22805744 1.608
-0.33055416 -0.23301372 1.612
-0.33135775 -0.23799118 1.6160001
-0.33236605 -0.24313982 1.6210001
-0.33275905 -0.247857 1.623
-0.3339718 -0.25320613 1.6289999
-0.33477429 -0.25827104 1.633
-0.33578154 -0.26351801 1.638
-0.33637848 -0.26846433 1.641
-0.33293739 0.40896386 1.649
-0.32588983 0.39591026 1.614
-0.32065889 0.38522923 1.5880001
-0.31663901 0.37612796 1.568
-0.3128207 0.36737177 1.549
-0.31021374 0.36012498 1.536
-0.30942422 0.35503384 1.5319999
-0.3090387 0.35042205 1.53
-0.30845109 0.34559432 1.527
-0.30665138 0.3394407 1.518
-0.30525553 0.33377722 1.511
-0.30385944 0.3281512 1.5039999
-0.30327144 0.32342455 1.501
-0.30248126 0.31850094 1.497
-0.30169097 0.31359854 1.493
-0.30110267 0.30892465 1.49
-0.30071634 0.30447116 1.488
-0.29992568 0.29962417 1.484
-0.29812425 0.29380244 1.475
-0.29652476 0.28822553 1.467
-0.29532921 0.283079 1.461
-0.29453784 0.27834672 1.457
-0.29354408 0.27344722 1.452
-0.2927523 0.26875997 1.448
-0.29236472 0.2644597 1.446
-0.29238144 0.26053011 1.446
-0.29260018 0.25677747 1.447
-0.29241446 0.25266933 1.446
-0.29202634 0.24839412 1.444
-0.29184029 0.24429849 1.443
